# ASCII
-1020.89 -3482.87 -1076.23
-1021.3 -3481.96 -1076.23
-1021.71 -3481.04 -1076.22
-1022.12 -3480.13 -1076.22
-1022.53 -3479.22 -1076.22
-1022.94 -3478.3 -1076.21
-1023.34 -3477.39 -1076.21
-1023.75 -3476.48 -1076.21
-1024.16 -3475.57 -1076.21
-1024.57 -3474.65 -1076.2
-1024.98 -3473.74 -1076.2
-1025.39 -3472.83 -1076.2
-1025.8 -3471.92 -1076.19
-1026.2 -3471 -1076.19
-1026.61 -3470.09 -1076.19
-1027.02 -3469.18 -1076.18
-1027.43 -3468.26 -1076.18
-1027.84 -3467.35 -1076.18
-1028.25 -3466.44 -1076.18
-1028.66 -3465.53 -1076.17
-1029.07 -3464.61 -1076.17
-1029.47 -3463.7 -1076.17
-1029.88 -3462.79 -1076.16
-1030.29 -3461.88 -1076.16
-1030.7 -3460.96 -1076.16
-1031.11 -3460.05 -1076.15
-1031.52 -3459.14 -1076.15
-1031.93 -3458.23 -1076.15
-1032.33 -3457.31 -1076.15
-1032.74 -3456.4 -1076.14
-1033.15 -3455.49 -1076.14
-1033.56 -3454.57 -1076.14
-1033.97 -3453.66 -1076.13
-1034.38 -3452.75 -1076.13
-1034.79 -3451.84 -1076.13
-1035.19 -3450.92 -1076.12
-1035.6 -3450.01 -1076.12
-1036.01 -3449.1 -1076.12
-1036.42 -3448.19 -1076.12
-1036.83 -3447.27 -1076.11
-1037.24 -3446.36 -1076.11
-1037.65 -3445.45 -1076.11
-1038.06 -3444.54 -1076.1
-1038.46 -3443.62 -1076.1
-1038.87 -3442.71 -1076.1
-1039.28 -3441.8 -1076.09
-1039.69 -3440.88 -1076.09
-1040.1 -3439.97 -1076.09
-1040.51 -3439.06 -1076.09
-1040.92 -3438.15 -1076.08
-1041.32 -3437.23 -1076.08
-1041.73 -3436.32 -1076.08
-1042.14 -3435.41 -1076.07
-1042.55 -3434.5 -1076.07
-1042.96 -3433.58 -1076.07
-1043.37 -3432.67 -1076.06
-1043.78 -3431.76 -1076.06
-1044.19 -3430.84 -1076.06
-1044.62 -3429.87 -1076.06
-1008.77 -3490.59 -1075.49
-1009.17 -3489.68 -1075.48
-1009.58 -3488.76 -1075.48
-1009.99 -3487.85 -1075.48
-1010.4 -3486.94 -1075.47
-1010.81 -3486.03 -1075.47
-1011.22 -3485.11 -1075.47
-1011.63 -3484.2 -1075.47
-1012.04 -3483.29 -1075.46
-1012.44 -3482.38 -1075.46
-1012.85 -3481.46 -1075.46
-1013.26 -3480.55 -1075.45
-1013.67 -3479.64 -1075.45
-1014.08 -3478.72 -1075.45
-1014.49 -3477.81 -1075.44
-1014.9 -3476.9 -1075.44
-1015.3 -3475.99 -1075.44
-1015.71 -3475.07 -1075.44
-1016.12 -3474.16 -1075.43
-1016.53 -3473.25 -1075.43
-1016.94 -3472.34 -1075.43
-1017.35 -3471.42 -1075.42
-1017.76 -3470.51 -1075.42
-1018.17 -3469.6 -1075.42
-1018.57 -3468.68 -1075.41
-1018.98 -3467.77 -1075.41
-1019.39 -3466.86 -1075.41
-1019.8 -3465.95 -1075.41
-1020.21 -3465.03 -1075.4
-1020.62 -3464.12 -1075.4
-1021.03 -3463.21 -1075.4
-1021.43 -3462.3 -1075.39
-1021.84 -3461.38 -1075.39
-1022.25 -3460.47 -1075.39
-1022.66 -3459.56 -1075.38
-1023.07 -3458.65 -1075.38
-1023.48 -3457.73 -1075.38
-1023.89 -3456.82 -1075.38
-1024.3 -3455.91 -1075.37
-1024.7 -3454.99 -1075.37
-1025.11 -3454.08 -1075.37
-1025.52 -3453.17 -1075.36
-1025.93 -3452.26 -1075.36
-1026.34 -3451.34 -1075.36
-1026.75 -3450.43 -1075.35
-1027.16 -3449.52 -1075.35
-1027.56 -3448.61 -1075.35
-1027.97 -3447.69 -1075.35
-1028.38 -3446.78 -1075.34
-1028.79 -3445.87 -1075.34
-1029.2 -3444.95 -1075.34
-1029.61 -3444.04 -1075.33
-1030.02 -3443.13 -1075.33
-1030.42 -3442.22 -1075.33
-1030.83 -3441.3 -1075.32
-1031.24 -3440.39 -1075.32
-1031.65 -3439.48 -1075.32
-1032.06 -3438.57 -1075.32
-1032.47 -3437.65 -1075.31
-1032.88 -3436.74 -1075.31
-1033.29 -3435.83 -1075.31
-1033.69 -3434.92 -1075.3
-1034.1 -3434 -1075.3
-1034.51 -3433.09 -1075.3
-1034.92 -3432.18 -1075.29
-1035.33 -3431.26 -1075.29
-1035.74 -3430.35 -1075.29
-1036.15 -3429.44 -1075.29
-1036.55 -3428.53 -1075.28
-1036.96 -3427.61 -1075.28
-1037.4 -3426.64 -1075.28
-1034.24 -3425.23 -1074.94
-1033.83 -3426.14 -1074.94
-1033.42 -3427.06 -1074.94
-1033.02 -3427.97 -1074.94
-1032.61 -3428.88 -1074.95
-1032.2 -3429.79 -1074.95
-1031.79 -3430.71 -1074.95
-1031.38 -3431.62 -1074.96
-1030.97 -3432.53 -1074.96
-1030.56 -3433.44 -1074.96
-1030.16 -3434.36 -1074.97
-1029.75 -3435.27 -1074.97
-1029.34 -3436.18 -1074.97
-1028.93 -3437.1 -1074.97
-1028.52 -3438.01 -1074.98
-1028.11 -3438.92 -1074.98
-1027.7 -3439.83 -1074.98
-1027.29 -3440.75 -1074.99
-1026.89 -3441.66 -1074.99
-1026.48 -3442.57 -1074.99
-1026.07 -3443.48 -1075
-1025.66 -3444.4 -1075
-1025.25 -3445.31 -1075
-1024.84 -3446.22 -1075
-1024.43 -3447.13 -1075.01
-1024.03 -3448.05 -1075.01
-1023.62 -3448.96 -1075.01
-1023.21 -3449.87 -1075.02
-1022.8 -3450.79 -1075.02
-1022.39 -3451.7 -1075.02
-1021.98 -3452.61 -1075.03
-1021.57 -3453.52 -1075.03
-1021.16 -3454.44 -1075.03
-1020.76 -3455.35 -1075.03
-1020.35 -3456.26 -1075.04
-1019.94 -3457.17 -1075.04
-1019.53 -3458.09 -1075.04
-1019.12 -3459 -1075.05
-1018.71 -3459.91 -1075.05
-1018.3 -3460.82 -1075.05
-1017.9 -3461.74 -1075.06
-1017.49 -3462.65 -1075.06
-1017.08 -3463.56 -1075.06
-1016.67 -3464.48 -1075.06
-1016.26 -3465.39 -1075.07
-1015.85 -3466.3 -1075.07
-1015.44 -3467.21 -1075.07
-1015.03 -3468.13 -1075.08
-1014.63 -3469.04 -1075.08
-1014.22 -3469.95 -1075.08
-1013.81 -3470.86 -1075.09
-1013.4 -3471.78 -1075.09
-1012.99 -3472.69 -1075.09
-1012.58 -3473.6 -1075.09
-1012.17 -3474.52 -1075.1
-1011.77 -3475.43 -1075.1
-1011.36 -3476.34 -1075.1
-1010.95 -3477.25 -1075.11
-1010.54 -3478.17 -1075.11
-1010.13 -3479.08 -1075.11
-1009.72 -3479.99 -1075.12
-1009.31 -3480.9 -1075.12
-1008.91 -3481.82 -1075.12
-1008.5 -3482.73 -1075.12
-1008.09 -3483.64 -1075.13
-1007.68 -3484.55 -1075.13
-1007.27 -3485.47 -1075.13
-1006.86 -3486.38 -1075.14
-1006.45 -3487.29 -1075.14
-1006.04 -3488.21 -1075.14
-1005.61 -3489.18 -1075.15
-997.239 -3485.43 -1074.24
-997.647 -3484.52 -1074.24
-998.056 -3483.61 -1074.24
-998.465 -3482.69 -1074.23
-998.873 -3481.78 -1074.23
-999.282 -3480.87 -1074.23
-999.691 -3479.96 -1074.22
-1000.1 -3479.04 -1074.22
-1000.51 -3478.13 -1074.22
-1000.92 -3477.22 -1074.22
-1001.33 -3476.3 -1074.21
-1001.73 -3475.39 -1074.21
-1002.14 -3474.48 -1074.21
-1002.55 -3473.57 -1074.2
-1002.96 -3472.65 -1074.2
-1003.37 -3471.74 -1074.2
-1003.78 -3470.83 -1074.19
-1004.19 -3469.92 -1074.19
-1004.59 -3469 -1074.19
-1005 -3468.09 -1074.19
-1005.41 -3467.18 -1074.18
-1005.82 -3466.27 -1074.18
-1006.23 -3465.35 -1074.18
-1006.64 -3464.44 -1074.17
-1007.05 -3463.53 -1074.17
-1007.46 -3462.61 -1074.17
-1007.86 -3461.7 -1074.16
-1008.27 -3460.79 -1074.16
-1008.68 -3459.88 -1074.16
-1009.09 -3458.96 -1074.16
-1009.5 -3458.05 -1074.15
-1009.91 -3457.14 -1074.15
-1010.32 -3456.23 -1074.15
-1010.72 -3455.31 -1074.14
-1011.13 -3454.4 -1074.14
-1011.54 -3453.49 -1074.14
-1011.95 -3452.58 -1074.13
-1012.36 -3451.66 -1074.13
-1012.77 -3450.75 -1074.13
-1013.18 -3449.84 -1074.13
-1013.58 -3448.92 -1074.12
-1013.99 -3448.01 -1074.12
-1014.4 -3447.1 -1074.12
-1014.81 -3446.19 -1074.11
-1015.22 -3445.27 -1074.11
-1015.63 -3444.36 -1074.11
-1016.04 -3443.45 -1074.1
-1016.45 -3442.54 -1074.1
-1016.85 -3441.62 -1074.1
-1017.26 -3440.71 -1074.1
-1017.67 -3439.8 -1074.09
-1018.08 -3438.89 -1074.09
-1018.49 -3437.97 -1074.09
-1018.9 -3437.06 -1074.08
-1019.31 -3436.15 -1074.08
-1019.71 -3435.23 -1074.08
-1020.12 -3434.32 -1074.07
-1020.53 -3433.41 -1074.07
-1020.94 -3432.5 -1074.07
-1021.35 -3431.58 -1074.07
-1021.76 -3430.67 -1074.06
-1022.17 -3429.76 -1074.06
-1022.58 -3428.85 -1074.06
-1022.98 -3427.93 -1074.05
-1023.39 -3427.02 -1074.05
-1023.8 -3426.11 -1074.05
-1024.21 -3425.19 -1074.04
-1024.62 -3424.28 -1074.04
-1025.03 -3423.37 -1074.04
-1025.44 -3422.46 -1074.04
-1025.87 -3421.49 -1074.03
-996.877 -3485.3 -1063.81
-997.285 -3484.39 -1063.8
-997.694 -3483.48 -1063.8
-998.103 -3482.57 -1063.8
-998.511 -3481.65 -1063.79
-998.92 -3480.74 -1063.79
-999.329 -3479.83 -1063.79
-999.737 -3478.92 -1063.78
-1000.15 -3478 -1063.78
-1000.55 -3477.09 -1063.78
-1000.96 -3476.18 -1063.78
-1001.37 -3475.26 -1063.77
-1001.78 -3474.35 -1063.77
-1002.19 -3473.44 -1063.77
-1002.6 -3472.53 -1063.76
-1003.01 -3471.61 -1063.76
-1003.42 -3470.7 -1063.76
-1003.82 -3469.79 -1063.75
-1004.23 -3468.88 -1063.75
-1004.64 -3467.96 -1063.75
-1005.05 -3467.05 -1063.75
-1005.46 -3466.14 -1063.74
-1005.87 -3465.23 -1063.74
-1006.28 -3464.31 -1063.74
-1006.68 -3463.4 -1063.73
-1007.09 -3462.49 -1063.73
-1007.5 -3461.57 -1063.73
-1007.91 -3460.66 -1063.72
-1008.32 -3459.75 -1063.72
-1008.73 -3458.84 -1063.72
-1009.14 -3457.92 -1063.72
-1009.55 -3457.01 -1063.71
-1009.95 -3456.1 -1063.71
-1010.36 -3455.19 -1063.71
-1010.77 -3454.27 -1063.7
-1011.18 -3453.36 -1063.7
-1011.59 -3452.45 -1063.7
-1012 -3451.53 -1063.69
-1012.41 -3450.62 -1063.69
-1012.81 -3449.71 -1063.69
-1013.22 -3448.8 -1063.69
-1013.63 -3447.88 -1063.68
-1014.04 -3446.97 -1063.68
-1014.45 -3446.06 -1063.68
-1014.86 -3445.15 -1063.67
-1015.27 -3444.23 -1063.67
-1015.67 -3443.32 -1063.67
-1016.08 -3442.41 -1063.66
-1016.49 -3441.5 -1063.66
-1016.9 -3440.58 -1063.66
-1017.31 -3439.67 -1063.66
-1017.72 -3438.76 -1063.65
-1018.13 -3437.84 -1063.65
-1018.54 -3436.93 -1063.65
-1018.94 -3436.02 -1063.64
-1019.35 -3435.11 -1063.64
-1019.76 -3434.19 -1063.64
-1020.17 -3433.28 -1063.63
-1020.58 -3432.37 -1063.63
-1020.99 -3431.46 -1063.63
-1021.4 -3430.54 -1063.63
-1021.8 -3429.63 -1063.62
-1022.21 -3428.72 -1063.62
-1022.62 -3427.8 -1063.62
-1023.03 -3426.89 -1063.61
-1023.44 -3425.98 -1063.61
-1023.85 -3425.07 -1063.61
-1024.26 -3424.15 -1063.6
-1024.67 -3423.24 -1063.6
-1025.07 -3422.33 -1063.6
-1025.51 -3421.36 -1063.6
-1025.48 -3421.35 -1062.84
-1025.07 -3422.26 -1062.85
-1024.67 -3423.17 -1062.85
-1024.26 -3424.09 -1062.85
-1023.85 -3425 -1062.86
-1023.44 -3425.91 -1062.86
-1023.03 -3426.82 -1062.86
-1022.62 -3427.74 -1062.87
-1022.21 -3428.65 -1062.87
-1021.8 -3429.56 -1062.87
-1021.4 -3430.48 -1062.87
-1020.99 -3431.39 -1062.88
-1020.58 -3432.3 -1062.88
-1020.17 -3433.21 -1062.88
-1019.76 -3434.13 -1062.89
-1019.35 -3435.04 -1062.89
-1018.94 -3435.95 -1062.89
-1018.54 -3436.86 -1062.9
-1018.13 -3437.78 -1062.9
-1017.72 -3438.69 -1062.9
-1017.31 -3439.6 -1062.9
-1016.9 -3440.51 -1062.91
-1016.49 -3441.43 -1062.91
-1016.08 -3442.34 -1062.91
-1015.68 -3443.25 -1062.92
-1015.27 -3444.17 -1062.92
-1014.86 -3445.08 -1062.92
-1014.45 -3445.99 -1062.93
-1014.04 -3446.9 -1062.93
-1013.63 -3447.82 -1062.93
-1013.22 -3448.73 -1062.93
-1012.81 -3449.64 -1062.94
-1012.41 -3450.55 -1062.94
-1012 -3451.47 -1062.94
-1011.59 -3452.38 -1062.95
-1011.18 -3453.29 -1062.95
-1010.77 -3454.2 -1062.95
-1010.36 -3455.12 -1062.96
-1009.95 -3456.03 -1062.96
-1009.55 -3456.94 -1062.96
-1009.14 -3457.86 -1062.96
-1008.73 -3458.77 -1062.97
-1008.32 -3459.68 -1062.97
-1007.91 -3460.59 -1062.97
-1007.5 -3461.51 -1062.98
-1007.09 -3462.42 -1062.98
-1006.68 -3463.33 -1062.98
-1006.28 -3464.24 -1062.99
-1005.87 -3465.16 -1062.99
-1005.46 -3466.07 -1062.99
-1005.05 -3466.98 -1062.99
-1004.64 -3467.9 -1063
-1004.23 -3468.81 -1063
-1003.82 -3469.72 -1063
-1003.42 -3470.63 -1063.01
-1003.01 -3471.55 -1063.01
-1002.6 -3472.46 -1063.01
-1002.19 -3473.37 -1063.02
-1001.78 -3474.28 -1063.02
-1001.37 -3475.2 -1063.02
-1000.96 -3476.11 -1063.02
-1000.55 -3477.02 -1063.03
-1000.15 -3477.93 -1063.03
-999.738 -3478.85 -1063.03
-999.329 -3479.76 -1063.04
-998.92 -3480.67 -1063.04
-998.512 -3481.59 -1063.04
-998.103 -3482.5 -1063.05
-997.694 -3483.41 -1063.05
-997.286 -3484.32 -1063.05
-996.851 -3485.29 -1063.05
-995.838 -3484.94 -1033.87
-996.247 -3484.02 -1033.86
-996.656 -3483.11 -1033.86
-997.064 -3482.2 -1033.86
-997.473 -3481.29 -1033.85
-997.882 -3480.37 -1033.85
-998.29 -3479.46 -1033.85
-998.699 -3478.55 -1033.85
-999.108 -3477.64 -1033.84
-999.516 -3476.72 -1033.84
-999.925 -3475.81 -1033.84
-1000.33 -3474.9 -1033.83
-1000.74 -3473.99 -1033.83
-1001.15 -3473.07 -1033.83
-1001.56 -3472.16 -1033.82
-1001.97 -3471.25 -1033.82
-1002.38 -3470.33 -1033.82
-1002.79 -3469.42 -1033.82
-1003.19 -3468.51 -1033.81
-1003.6 -3467.6 -1033.81
-1004.01 -3466.68 -1033.81
-1004.42 -3465.77 -1033.8
-1004.83 -3464.86 -1033.8
-1005.24 -3463.95 -1033.8
-1005.65 -3463.03 -1033.79
-1006.05 -3462.12 -1033.79
-1006.46 -3461.21 -1033.79
-1006.87 -3460.3 -1033.79
-1007.28 -3459.38 -1033.78
-1007.69 -3458.47 -1033.78
-1008.1 -3457.56 -1033.78
-1008.51 -3456.64 -1033.77
-1008.92 -3455.73 -1033.77
-1009.32 -3454.82 -1033.77
-1009.73 -3453.91 -1033.76
-1010.14 -3452.99 -1033.76
-1010.33 -3452.58 -1033.76
-1010.71 -3451.73 -1033.76
-1011.12 -3450.82 -1033.75
-1011.52 -3449.9 -1033.75
-1011.93 -3448.99 -1033.75
-1012.34 -3448.08 -1033.74
-1012.75 -3447.17 -1033.74
-1013.16 -3446.25 -1033.74
-1013.57 -3445.34 -1033.74
-1013.98 -3444.43 -1033.73
-1014.39 -3443.51 -1033.73
-1014.79 -3442.6 -1033.73
-1015.2 -3441.69 -1033.72
-1015.61 -3440.78 -1033.72
-1016.02 -3439.86 -1033.72
-1016.43 -3438.95 -1033.71
-1016.84 -3438.04 -1033.71
-1017.25 -3437.13 -1033.71
-1017.65 -3436.21 -1033.71
-1018.06 -3435.3 -1033.7
-1018.47 -3434.39 -1033.7
-1018.88 -3433.48 -1033.7
-1019.29 -3432.56 -1033.69
-1019.7 -3431.65 -1033.69
-1020.11 -3430.74 -1033.69
-1020.52 -3429.82 -1033.69
-1020.92 -3428.91 -1033.68
-1021.33 -3428 -1033.68
-1021.74 -3427.09 -1033.68
-1022.15 -3426.17 -1033.67
-1022.56 -3425.26 -1033.67
-1022.97 -3424.35 -1033.67
-1023.38 -3423.44 -1033.66
-1023.78 -3422.52 -1033.66
-1024.19 -3421.61 -1033.66
-1024.47 -3420.99 -1033.66
-1051.46 -3093.77 -1425.11
-1051.51 -3094.77 -1425.12
-1051.56 -3095.77 -1425.12
-1051.61 -3096.76 -1425.13
-1051.66 -3097.76 -1425.13
-1051.71 -3098.76 -1425.14
-1051.75 -3099.76 -1425.15
-1051.79 -3100.76 -1425.15
-1051.84 -3101.76 -1425.16
-1051.88 -3102.76 -1425.16
-1051.92 -3103.76 -1425.17
-1051.96 -3104.76 -1425.18
-1051.99 -3105.76 -1425.18
-1052.03 -3106.76 -1425.19
-1052.06 -3107.75 -1425.19
-1052.1 -3108.75 -1425.2
-1052.13 -3109.75 -1425.21
-1052.16 -3110.75 -1425.21
-1052.19 -3111.75 -1425.22
-1052.22 -3112.75 -1425.23
-1052.24 -3113.75 -1425.23
-1052.27 -3114.75 -1425.24
-1052.29 -3115.75 -1425.24
-1052.31 -3116.75 -1425.25
-1052.34 -3117.75 -1425.26
-1052.36 -3118.75 -1425.26
-1052.37 -3119.75 -1425.27
-1052.39 -3120.75 -1425.27
-1052.41 -3121.75 -1425.28
-1052.42 -3122.75 -1425.29
-1052.43 -3123.75 -1425.29
-1052.45 -3124.75 -1425.3
-1052.46 -3125.75 -1425.3
-1052.47 -3126.75 -1425.31
-1052.47 -3127.75 -1425.32
-1052.48 -3128.75 -1425.32
-1052.49 -3129.75 -1425.33
-1052.49 -3130.75 -1425.33
-1052.49 -3131.75 -1425.34
-1052.49 -3132.75 -1425.35
-1052.49 -3133.75 -1425.35
-1052.49 -3134.75 -1425.36
-1052.49 -3135.75 -1425.36
-1052.48 -3136.75 -1425.37
-1052.48 -3137.75 -1425.38
-1052.47 -3138.75 -1425.38
-1052.46 -3139.75 -1425.39
-1052.45 -3140.75 -1425.39
-1052.44 -3141.75 -1425.4
-1052.43 -3142.75 -1425.41
-1052.42 -3143.75 -1425.41
-1052.4 -3144.75 -1425.42
-1052.39 -3145.75 -1425.42
-1052.37 -3146.75 -1425.43
-1052.35 -3147.75 -1425.44
-1052.33 -3148.75 -1425.44
-1052.31 -3149.75 -1425.45
-1052.28 -3150.75 -1425.45
-1052.26 -3151.75 -1425.46
-1052.23 -3152.75 -1425.47
-1052.21 -3153.75 -1425.47
-1052.18 -3154.75 -1425.48
-1052.15 -3155.75 -1425.48
-1052.12 -3156.75 -1425.49
-1052.09 -3157.74 -1425.5
-1052.05 -3158.74 -1425.5
-1052.02 -3159.74 -1425.51
-1051.98 -3160.74 -1425.51
-1051.94 -3161.74 -1425.52
-1051.91 -3162.74 -1425.53
-1051.86 -3163.74 -1425.53
-1051.82 -3164.74 -1425.54
-1051.78 -3165.74 -1425.54
-1051.74 -3166.74 -1425.55
-1051.69 -3167.74 -1425.56
-1051.64 -3168.74 -1425.56
-1051.59 -3169.73 -1425.57
-1051.55 -3170.73 -1425.57
-1051.49 -3171.73 -1425.58
-1051.44 -3172.73 -1425.59
-1051.39 -3173.73 -1425.59
-1051.33 -3174.73 -1425.6
-1051.28 -3175.73 -1425.6
-1051.22 -3176.72 -1425.61
-1051.16 -3177.72 -1425.61
-1051.1 -3178.72 -1425.62
-1051.04 -3179.72 -1425.63
-1050.98 -3180.72 -1425.63
-1050.91 -3181.71 -1425.64
-1050.85 -3182.71 -1425.64
-1050.78 -3183.71 -1425.65
-1050.71 -3184.71 -1425.66
-1050.64 -3185.71 -1425.66
-1050.57 -3186.7 -1425.67
-1050.5 -3187.7 -1425.67
-1050.42 -3188.7 -1425.68
-1050.35 -3189.69 -1425.69
-1050.27 -3190.69 -1425.69
-1050.19 -3191.69 -1425.7
-1050.11 -3192.69 -1425.7
-1050.03 -3193.68 -1425.71
-1049.95 -3194.68 -1425.71
-1049.87 -3195.68 -1425.72
-1049.79 -3196.67 -1425.73
-1049.7 -3197.67 -1425.73
-1049.61 -3198.66 -1425.74
-1049.52 -3199.66 -1425.74
-1049.43 -3200.66 -1425.75
-1049.34 -3201.65 -1425.76
-1049.25 -3202.65 -1425.76
-1049.16 -3203.64 -1425.77
-1049.06 -3204.64 -1425.77
-1048.97 -3205.63 -1425.78
-1048.87 -3206.63 -1425.78
-1048.77 -3207.62 -1425.79
-1048.67 -3208.62 -1425.8
-1048.57 -3209.61 -1425.8
-1048.47 -3210.61 -1425.81
-1048.36 -3211.6 -1425.81
-1048.26 -3212.6 -1425.82
-1048.15 -3213.59 -1425.83
-1048.04 -3214.59 -1425.83
-1047.93 -3215.58 -1425.84
-1047.82 -3216.57 -1425.84
-1047.71 -3217.57 -1425.85
-1047.59 -3218.56 -1425.85
-1047.48 -3219.55 -1425.86
-1047.36 -3220.55 -1425.87
-1047.24 -3221.54 -1425.87
-1047.13 -3222.53 -1425.88
-1047.01 -3223.53 -1425.88
-1046.88 -3224.52 -1425.89
-1046.76 -3225.51 -1425.9
-1046.64 -3226.5 -1425.9
-1046.51 -3227.5 -1425.91
-1046.38 -3228.49 -1425.91
-1046.26 -3229.48 -1425.92
-1046.13 -3230.47 -1425.92
-1046 -3231.46 -1425.93
-1045.86 -3232.45 -1425.94
-1045.73 -3233.44 -1425.94
-1045.6 -3234.44 -1425.95
-1045.46 -3235.43 -1425.95
-1045.32 -3236.42 -1425.96
-1045.18 -3237.41 -1425.96
-1045.04 -3238.4 -1425.97
-1044.9 -3239.39 -1425.98
-1044.76 -3240.38 -1425.98
-1044.61 -3241.37 -1425.99
-1044.47 -3242.36 -1425.99
-1044.32 -3243.34 -1426
-1044.17 -3244.33 -1426
-1044.02 -3245.32 -1426.01
-1043.87 -3246.31 -1426.02
-1043.72 -3247.3 -1426.02
-1043.57 -3248.29 -1426.03
-1043.41 -3249.28 -1426.03
-1043.26 -3250.26 -1426.04
-1043.1 -3251.25 -1426.04
-1042.94 -3252.24 -1426.05
-1042.78 -3253.22 -1426.06
-1042.62 -3254.21 -1426.06
-1042.46 -3255.2 -1426.07
-1042.29 -3256.19 -1426.07
-1042.13 -3257.17 -1426.08
-1041.96 -3258.16 -1426.08
-1041.79 -3259.14 -1426.09
-1041.63 -3260.13 -1426.1
-1041.46 -3261.11 -1426.1
-1041.28 -3262.1 -1426.11
-1041.11 -3263.08 -1426.11
-1040.94 -3264.07 -1426.12
-1040.76 -3265.05 -1426.12
-1040.58 -3266.04 -1426.13
-1040.4 -3267.02 -1426.13
-1040.22 -3268 -1426.14
-1040.04 -3268.99 -1426.15
-1039.86 -3269.97 -1426.15
-1039.68 -3270.95 -1426.16
-1039.49 -3271.94 -1426.16
-1039.31 -3272.92 -1426.17
-1039.12 -3273.9 -1426.17
-1038.93 -3274.88 -1426.18
-1038.74 -3275.87 -1426.19
-1038.55 -3276.85 -1426.19
-1038.36 -3277.83 -1426.2
-1038.16 -3278.81 -1426.2
-1037.97 -3279.79 -1426.21
-1037.77 -3280.77 -1426.21
-1037.57 -3281.75 -1426.22
-1037.37 -3282.73 -1426.22
-1037.17 -3283.71 -1426.23
-1036.97 -3284.69 -1426.24
-1036.77 -3285.67 -1426.24
-1036.56 -3286.65 -1426.25
-1036.35 -3287.63 -1426.25
-1036.15 -3288.6 -1426.26
-1035.94 -3289.58 -1426.26
-1035.73 -3290.56 -1426.27
-1035.52 -3291.54 -1426.27
-1035.31 -3292.51 -1426.28
-1035.09 -3293.49 -1426.29
-1034.88 -3294.47 -1426.29
-1034.66 -3295.44 -1426.3
-1034.44 -3296.42 -1426.3
-1034.22 -3297.4 -1426.31
-1034 -3298.37 -1426.31
-1033.78 -3299.35 -1426.32
-1033.56 -3300.32 -1426.32
-1033.33 -3301.3 -1426.33
-1033.11 -3302.27 -1426.33
-1032.88 -3303.24 -1426.34
-1032.65 -3304.22 -1426.35
-1032.42 -3305.19 -1426.35
-1032.19 -3306.16 -1426.36
-1031.96 -3307.14 -1426.36
-1031.73 -3308.11 -1426.37
-1031.49 -3309.08 -1426.37
-1031.26 -3310.05 -1426.38
-1031.02 -3311.02 -1426.38
-1030.78 -3312 -1426.39
-1030.54 -3312.97 -1426.4
-1030.3 -3313.94 -1426.4
-1030.06 -3314.91 -1426.41
-1029.82 -3315.88 -1426.41
-1029.57 -3316.85 -1426.42
-1029.32 -3317.82 -1426.42
-1029.08 -3318.78 -1426.43
-1028.83 -3319.75 -1426.43
-1028.58 -3320.72 -1426.44
-1028.33 -3321.69 -1426.44
-1028.07 -3322.66 -1426.45
-1027.82 -3323.62 -1426.45
-1027.56 -3324.59 -1426.46
-1027.31 -3325.56 -1426.47
-1027.05 -3326.52 -1426.47
-1026.79 -3327.49 -1426.48
-1026.53 -3328.45 -1426.48
-1026.27 -3329.42 -1426.49
-1026 -3330.38 -1426.49
-1025.74 -3331.35 -1426.5
-1025.47 -3332.31 -1426.5
-1025.21 -3333.28 -1426.51
-1024.94 -3334.24 -1426.51
-1024.67 -3335.2 -1426.52
-1024.4 -3336.17 -1426.52
-1024.13 -3337.13 -1426.53
-1023.85 -3338.09 -1426.54
-1023.58 -3339.05 -1426.54
-1023.3 -3340.01 -1426.55
-1023.02 -3340.97 -1426.55
-1022.75 -3341.93 -1426.56
-1022.47 -3342.89 -1426.56
-1022.19 -3343.85 -1426.57
-1021.9 -3344.81 -1426.57
-1021.62 -3345.77 -1426.58
-1021.33 -3346.73 -1426.58
-1021.05 -3347.69 -1426.59
-1020.76 -3348.65 -1426.59
-1020.47 -3349.6 -1426.6
-1020.18 -3350.56 -1426.6
-1019.89 -3351.52 -1426.61
-1019.6 -3352.47 -1426.61
-1019.3 -3353.43 -1426.62
-1019.01 -3354.38 -1426.63
-1018.71 -3355.34 -1426.63
-1018.41 -3356.29 -1426.64
-1018.12 -3357.25 -1426.64
-1017.82 -3358.2 -1426.65
-1017.51 -3359.15 -1426.65
-1017.21 -3360.11 -1426.66
-1016.91 -3361.06 -1426.66
-1016.6 -3362.01 -1426.67
-1016.29 -3362.96 -1426.67
-1015.99 -3363.92 -1426.68
-1015.68 -3364.87 -1426.68
-1015.37 -3365.82 -1426.69
-1015.05 -3366.77 -1426.69
-1014.74 -3367.72 -1426.7
-1014.43 -3368.67 -1426.7
-1014.11 -3369.62 -1426.71
-1013.8 -3370.56 -1426.71
-1013.48 -3371.51 -1426.72
-1013.16 -3372.46 -1426.72
-1012.84 -3373.41 -1426.73
-1012.52 -3374.35 -1426.73
-1012.19 -3375.3 -1426.74
-1011.87 -3376.25 -1426.75
-1011.54 -3377.19 -1426.75
-1011.21 -3378.14 -1426.76
-1010.89 -3379.08 -1426.76
-1010.56 -3380.02 -1426.77
-1010.23 -3380.97 -1426.77
-1009.89 -3381.91 -1426.78
-1009.56 -3382.85 -1426.78
-1009.23 -3383.8 -1426.79
-1008.89 -3384.74 -1426.79
-1008.55 -3385.68 -1426.8
-1008.22 -3386.62 -1426.8
-1007.88 -3387.56 -1426.81
-1007.54 -3388.5 -1426.81
-1007.19 -3389.44 -1426.82
-1006.85 -3390.38 -1426.82
-1006.51 -3391.32 -1426.83
-1006.16 -3392.26 -1426.83
-1005.81 -3393.2 -1426.84
-1005.46 -3394.13 -1426.84
-1005.11 -3395.07 -1426.85
-1004.76 -3396.01 -1426.85
-1004.41 -3396.94 -1426.86
-1004.06 -3397.88 -1426.86
-1003.7 -3398.81 -1426.87
-1003.35 -3399.75 -1426.87
-1002.99 -3400.68 -1426.88
-1002.63 -3401.61 -1426.88
-1002.27 -3402.55 -1426.89
-1001.91 -3403.48 -1426.89
-1001.55 -3404.41 -1426.9
-1001.19 -3405.34 -1426.9
-1000.82 -3406.28 -1426.91
-1000.46 -3407.21 -1426.91
-1000.09 -3408.14 -1426.92
-999.872 -3408.68 -1426.92
-1070.12 -3091.75 -1446.55
-1069.15 -3091.85 -1446.32
-1068.19 -3091.95 -1446.05
-1067.25 -3092.05 -1445.74
-1066.31 -3092.15 -1445.39
-1065.4 -3092.25 -1445
-1064.5 -3092.34 -1444.57
-1063.62 -3092.43 -1444.1
-1062.76 -3092.52 -1443.6
-1061.92 -3092.61 -1443.07
-1061.1 -3092.7 -1442.49
-1060.31 -3092.78 -1441.89
-1059.55 -3092.86 -1441.25
-1058.81 -3092.94 -1440.58
-1058.1 -3093.02 -1439.88
-1057.42 -3093.09 -1439.15
-1056.78 -3093.16 -1438.39
-1056.16 -3093.23 -1437.6
-1055.58 -3093.29 -1436.79
-1055.03 -3093.35 -1435.96
-1054.52 -3093.41 -1435.1
-1054.04 -3093.46 -1434.22
-1053.6 -3093.51 -1433.33
-1053.2 -3093.56 -1432.41
-1052.84 -3093.6 -1431.48
-1052.52 -3093.64 -1430.53
-1052.23 -3093.67 -1429.58
-1051.99 -3093.7 -1428.61
-1051.79 -3093.72 -1427.63
-1051.63 -3093.74 -1426.64
-1051.51 -3093.76 -1425.65
-1051.46 -3093.77 -1425.11
-1042.12 -3095.26 -1303.58
-1042.2 -3095.25 -1304.58
-1042.27 -3095.24 -1305.57
-1042.35 -3095.22 -1306.57
-1042.43 -3095.21 -1307.57
-1042.5 -3095.2 -1308.57
-1042.58 -3095.19 -1309.56
-1042.66 -3095.17 -1310.56
-1042.73 -3095.16 -1311.56
-1042.81 -3095.15 -1312.55
-1042.89 -3095.14 -1313.55
-1042.96 -3095.13 -1314.55
-1043.04 -3095.11 -1315.54
-1043.12 -3095.1 -1316.54
-1043.19 -3095.09 -1317.54
-1043.27 -3095.08 -1318.54
-1043.35 -3095.06 -1319.53
-1043.42 -3095.05 -1320.53
-1043.5 -3095.04 -1321.53
-1043.58 -3095.03 -1322.52
-1043.65 -3095.02 -1323.52
-1043.73 -3095 -1324.52
-1043.81 -3094.99 -1325.51
-1043.88 -3094.98 -1326.51
-1043.96 -3094.97 -1327.51
-1044.04 -3094.95 -1328.51
-1044.11 -3094.94 -1329.5
-1044.19 -3094.93 -1330.5
-1044.27 -3094.92 -1331.5
-1044.34 -3094.91 -1332.49
-1044.42 -3094.89 -1333.49
-1044.5 -3094.88 -1334.49
-1044.57 -3094.87 -1335.48
-1044.65 -3094.86 -1336.48
-1044.73 -3094.84 -1337.48
-1044.8 -3094.83 -1338.47
-1044.88 -3094.82 -1339.47
-1044.96 -3094.81 -1340.47
-1045.03 -3094.8 -1341.47
-1045.11 -3094.78 -1342.46
-1045.19 -3094.77 -1343.46
-1045.26 -3094.76 -1344.46
-1045.34 -3094.75 -1345.45
-1045.42 -3094.73 -1346.45
-1045.49 -3094.72 -1347.45
-1045.57 -3094.71 -1348.44
-1045.65 -3094.7 -1349.44
-1045.72 -3094.69 -1350.44
-1045.8 -3094.67 -1351.44
-1045.88 -3094.66 -1352.43
-1045.95 -3094.65 -1353.43
-1046.03 -3094.64 -1354.43
-1046.1 -3094.62 -1355.42
-1046.18 -3094.61 -1356.42
-1046.26 -3094.6 -1357.42
-1046.33 -3094.59 -1358.41
-1046.41 -3094.57 -1359.41
-1046.49 -3094.56 -1360.41
-1046.56 -3094.55 -1361.41
-1046.64 -3094.54 -1362.4
-1046.72 -3094.53 -1363.4
-1046.79 -3094.51 -1364.4
-1046.87 -3094.5 -1365.39
-1046.95 -3094.49 -1366.39
-1047.02 -3094.48 -1367.39
-1047.1 -3094.46 -1368.38
-1047.18 -3094.45 -1369.38
-1047.25 -3094.44 -1370.38
-1047.33 -3094.43 -1371.38
-1047.41 -3094.42 -1372.37
-1047.48 -3094.4 -1373.37
-1047.56 -3094.39 -1374.37
-1047.64 -3094.38 -1375.36
-1047.71 -3094.37 -1376.36
-1047.79 -3094.35 -1377.36
-1047.87 -3094.34 -1378.35
-1047.94 -3094.33 -1379.35
-1048.02 -3094.32 -1380.35
-1048.1 -3094.31 -1381.35
-1048.17 -3094.29 -1382.34
-1048.25 -3094.28 -1383.34
-1048.33 -3094.27 -1384.34
-1048.4 -3094.26 -1385.33
-1048.48 -3094.24 -1386.33
-1048.56 -3094.23 -1387.33
-1048.63 -3094.22 -1388.32
-1048.71 -3094.21 -1389.32
-1048.79 -3094.2 -1390.32
-1048.86 -3094.18 -1391.32
-1048.94 -3094.17 -1392.31
-1049.02 -3094.16 -1393.31
-1049.09 -3094.15 -1394.31
-1049.17 -3094.13 -1395.3
-1049.25 -3094.12 -1396.3
-1049.32 -3094.11 -1397.3
-1049.4 -3094.1 -1398.29
-1049.48 -3094.09 -1399.29
-1049.55 -3094.07 -1400.29
-1049.63 -3094.06 -1401.29
-1049.71 -3094.05 -1402.28
-1049.78 -3094.04 -1403.28
-1049.86 -3094.02 -1404.28
-1049.94 -3094.01 -1405.27
-1050.01 -3094 -1406.27
-1050.09 -3093.99 -1407.27
-1050.16 -3093.98 -1408.26
-1050.24 -3093.96 -1409.26
-1050.32 -3093.95 -1410.26
-1050.39 -3093.94 -1411.25
-1050.47 -3093.93 -1412.25
-1050.55 -3093.91 -1413.25
-1050.62 -3093.9 -1414.25
-1050.7 -3093.89 -1415.24
-1050.78 -3093.88 -1416.24
-1050.85 -3093.86 -1417.24
-1050.93 -3093.85 -1418.23
-1051.01 -3093.84 -1419.23
-1051.08 -3093.83 -1420.23
-1051.16 -3093.82 -1421.22
-1051.24 -3093.8 -1422.22
-1051.31 -3093.79 -1423.22
-1051.39 -3093.78 -1424.22
-1051.46 -3093.77 -1425.11
-991.416 -3405.3 -1305.36
-991.783 -3404.37 -1305.36
-992.148 -3403.44 -1305.35
-992.513 -3402.5 -1305.35
-992.876 -3401.57 -1305.34
-993.238 -3400.64 -1305.34
-993.599 -3399.71 -1305.33
-993.958 -3398.78 -1305.33
-994.316 -3397.84 -1305.32
-994.673 -3396.91 -1305.32
-995.029 -3395.97 -1305.31
-995.383 -3395.04 -1305.31
-995.736 -3394.1 -1305.3
-996.088 -3393.17 -1305.3
-996.439 -3392.23 -1305.29
-996.788 -3391.29 -1305.29
-997.136 -3390.35 -1305.28
-997.483 -3389.42 -1305.28
-997.828 -3388.48 -1305.27
-998.172 -3387.54 -1305.27
-998.515 -3386.6 -1305.26
-998.857 -3385.66 -1305.26
-999.197 -3384.72 -1305.25
-999.536 -3383.78 -1305.25
-999.874 -3382.84 -1305.24
-1000.21 -3381.9 -1305.24
-1000.55 -3380.95 -1305.23
-1000.88 -3380.01 -1305.23
-1001.21 -3379.07 -1305.22
-1001.54 -3378.13 -1305.22
-1001.87 -3377.18 -1305.21
-1002.2 -3376.24 -1305.21
-1002.53 -3375.29 -1305.2
-1002.86 -3374.35 -1305.2
-1003.18 -3373.4 -1305.19
-1003.51 -3372.46 -1305.19
-1003.83 -3371.51 -1305.18
-1004.15 -3370.56 -1305.18
-1004.47 -3369.61 -1305.17
-1004.79 -3368.67 -1305.17
-1005.11 -3367.72 -1305.16
-1005.42 -3366.77 -1305.15
-1005.74 -3365.82 -1305.15
-1006.05 -3364.87 -1305.14
-1006.36 -3363.92 -1305.14
-1006.67 -3362.97 -1305.13
-1006.98 -3362.02 -1305.13
-1007.29 -3361.07 -1305.12
-1007.6 -3360.12 -1305.12
-1007.9 -3359.16 -1305.11
-1008.21 -3358.21 -1305.11
-1008.51 -3357.26 -1305.1
-1008.81 -3356.31 -1305.1
-1009.11 -3355.35 -1305.09
-1009.41 -3354.4 -1305.09
-1009.71 -3353.44 -1305.08
-1010.01 -3352.49 -1305.08
-1010.3 -3351.53 -1305.07
-1010.6 -3350.58 -1305.07
-1010.89 -3349.62 -1305.06
-1011.18 -3348.67 -1305.06
-1011.47 -3347.71 -1305.05
-1011.76 -3346.75 -1305.04
-1012.05 -3345.79 -1305.04
-1012.34 -3344.83 -1305.03
-1012.62 -3343.88 -1305.03
-1012.91 -3342.92 -1305.02
-1013.19 -3341.96 -1305.02
-1013.47 -3341 -1305.01
-1013.75 -3340.04 -1305.01
-1014.03 -3339.08 -1305
-1014.31 -3338.12 -1305
-1014.58 -3337.16 -1304.99
-1014.86 -3336.2 -1304.99
-1015.13 -3335.23 -1304.98
-1015.4 -3334.27 -1304.98
-1015.67 -3333.31 -1304.97
-1015.94 -3332.35 -1304.96
-1016.21 -3331.38 -1304.96
-1016.48 -3330.42 -1304.95
-1016.74 -3329.45 -1304.95
-1017.01 -3328.49 -1304.94
-1017.27 -3327.52 -1304.94
-1017.53 -3326.56 -1304.93
-1017.79 -3325.59 -1304.93
-1018.05 -3324.63 -1304.92
-1018.31 -3323.66 -1304.92
-1018.56 -3322.7 -1304.91
-1018.82 -3321.73 -1304.91
-1019.07 -3320.76 -1304.9
-1019.33 -3319.79 -1304.89
-1019.58 -3318.83 -1304.89
-1019.83 -3317.86 -1304.88
-1020.08 -3316.89 -1304.88
-1020.32 -3315.92 -1304.87
-1020.57 -3314.95 -1304.87
-1020.81 -3313.98 -1304.86
-1021.06 -3313.01 -1304.86
-1021.3 -3312.04 -1304.85
-1021.54 -3311.07 -1304.85
-1021.78 -3310.1 -1304.84
-1022.02 -3309.13 -1304.83
-1022.25 -3308.16 -1304.83
-1022.49 -3307.19 -1304.82
-1022.72 -3306.21 -1304.82
-1022.96 -3305.24 -1304.81
-1023.19 -3304.27 -1304.81
-1023.42 -3303.29 -1304.8
-1023.65 -3302.32 -1304.8
-1023.87 -3301.35 -1304.79
-1024.1 -3300.37 -1304.79
-1024.33 -3299.4 -1304.78
-1024.55 -3298.42 -1304.77
-1024.77 -3297.45 -1304.77
-1024.99 -3296.47 -1304.76
-1025.21 -3295.5 -1304.76
-1025.43 -3294.52 -1304.75
-1025.65 -3293.55 -1304.75
-1025.86 -3292.57 -1304.74
-1026.08 -3291.59 -1304.74
-1026.29 -3290.62 -1304.73
-1026.5 -3289.64 -1304.72
-1026.71 -3288.66 -1304.72
-1026.92 -3287.68 -1304.71
-1027.13 -3286.7 -1304.71
-1027.33 -3285.73 -1304.7
-1027.54 -3284.75 -1304.7
-1027.74 -3283.77 -1304.69
-1027.95 -3282.79 -1304.69
-1028.15 -3281.81 -1304.68
-1028.35 -3280.83 -1304.68
-1028.55 -3279.85 -1304.67
-1028.74 -3278.87 -1304.66
-1028.94 -3277.89 -1304.66
-1029.13 -3276.91 -1304.65
-1029.33 -3275.93 -1304.65
-1029.52 -3274.95 -1304.64
-1029.71 -3273.96 -1304.64
-1029.9 -3272.98 -1304.63
-1030.08 -3272 -1304.62
-1030.27 -3271.02 -1304.62
-1030.46 -3270.03 -1304.61
-1030.64 -3269.05 -1304.61
-1030.82 -3268.07 -1304.6
-1031 -3267.08 -1304.6
-1031.18 -3266.1 -1304.59
-1031.36 -3265.12 -1304.59
-1031.54 -3264.13 -1304.58
-1031.71 -3263.15 -1304.57
-1031.89 -3262.16 -1304.57
-1032.06 -3261.18 -1304.56
-1032.23 -3260.19 -1304.56
-1032.4 -3259.21 -1304.55
-1032.57 -3258.22 -1304.55
-1032.74 -3257.24 -1304.54
-1032.91 -3256.25 -1304.53
-1033.07 -3255.26 -1304.53
-1033.24 -3254.28 -1304.52
-1033.4 -3253.29 -1304.52
-1033.56 -3252.3 -1304.51
-1033.72 -3251.32 -1304.51
-1033.88 -3250.33 -1304.5
-1034.04 -3249.34 -1304.49
-1034.19 -3248.35 -1304.49
-1034.35 -3247.37 -1304.48
-1034.5 -3246.38 -1304.48
-1034.65 -3245.39 -1304.47
-1034.8 -3244.4 -1304.47
-1034.95 -3243.41 -1304.46
-1035.1 -3242.42 -1304.45
-1035.24 -3241.43 -1304.45
-1035.39 -3240.45 -1304.44
-1035.53 -3239.46 -1304.44
-1035.68 -3238.47 -1304.43
-1035.82 -3237.48 -1304.43
-1035.96 -3236.49 -1304.42
-1036.09 -3235.5 -1304.41
-1036.23 -3234.5 -1304.41
-1036.37 -3233.51 -1304.4
-1036.5 -3232.52 -1304.4
-1036.63 -3231.53 -1304.39
-1036.77 -3230.54 -1304.39
-1036.9 -3229.55 -1304.38
-1037.03 -3228.56 -1304.37
-1037.15 -3227.57 -1304.37
-1037.28 -3226.57 -1304.36
-1037.4 -3225.58 -1304.36
-1037.53 -3224.59 -1304.35
-1037.65 -3223.6 -1304.35
-1037.77 -3222.6 -1304.34
-1037.89 -3221.61 -1304.33
-1038.01 -3220.62 -1304.33
-1038.13 -3219.63 -1304.32
-1038.24 -3218.63 -1304.32
-1038.36 -3217.64 -1304.31
-1038.47 -3216.65 -1304.31
-1038.58 -3215.65 -1304.3
-1038.69 -3214.66 -1304.29
-1038.8 -3213.66 -1304.29
-1038.91 -3212.67 -1304.28
-1039.01 -3211.68 -1304.28
-1039.12 -3210.68 -1304.27
-1039.22 -3209.69 -1304.26
-1039.32 -3208.69 -1304.26
-1039.42 -3207.7 -1304.25
-1039.52 -3206.7 -1304.25
-1039.62 -3205.71 -1304.24
-1039.72 -3204.71 -1304.24
-1039.81 -3203.72 -1304.23
-1039.91 -3202.72 -1304.22
-1040 -3201.72 -1304.22
-1040.09 -3200.73 -1304.21
-1040.18 -3199.73 -1304.21
-1040.27 -3198.74 -1304.2
-1040.36 -3197.74 -1304.19
-1040.44 -3196.74 -1304.19
-1040.53 -3195.75 -1304.18
-1040.61 -3194.75 -1304.18
-1040.69 -3193.75 -1304.17
-1040.77 -3192.76 -1304.17
-1040.85 -3191.76 -1304.16
-1040.93 -3190.76 -1304.15
-1041.01 -3189.77 -1304.15
-1041.08 -3188.77 -1304.14
-1041.15 -3187.77 -1304.14
-1041.23 -3186.77 -1304.13
-1041.3 -3185.78 -1304.12
-1041.37 -3184.78 -1304.12
-1041.44 -3183.78 -1304.11
-1041.5 -3182.78 -1304.11
-1041.57 -3181.79 -1304.1
-1041.63 -3180.79 -1304.09
-1041.7 -3179.79 -1304.09
-1041.76 -3178.79 -1304.08
-1041.82 -3177.79 -1304.08
-1041.88 -3176.8 -1304.07
-1041.93 -3175.8 -1304.07
-1041.99 -3174.8 -1304.06
-1042.05 -3173.8 -1304.05
-1042.1 -3172.8 -1304.05
-1042.15 -3171.8 -1304.04
-1042.2 -3170.81 -1304.04
-1042.25 -3169.81 -1304.03
-1042.3 -3168.81 -1304.02
-1042.35 -3167.81 -1304.02
-1042.39 -3166.81 -1304.01
-1042.44 -3165.81 -1304.01
-1042.48 -3164.81 -1304
-1042.52 -3163.81 -1303.99
-1042.56 -3162.81 -1303.99
-1042.6 -3161.81 -1303.98
-1042.63 -3160.81 -1303.98
-1042.67 -3159.82 -1303.97
-1042.71 -3158.82 -1303.96
-1042.74 -3157.82 -1303.96
-1042.77 -3156.82 -1303.95
-1042.8 -3155.82 -1303.95
-1042.83 -3154.82 -1303.94
-1042.86 -3153.82 -1303.93
-1042.88 -3152.82 -1303.93
-1042.91 -3151.82 -1303.92
-1042.93 -3150.82 -1303.92
-1042.96 -3149.82 -1303.91
-1042.98 -3148.82 -1303.9
-1043 -3147.82 -1303.9
-1043.01 -3146.82 -1303.89
-1043.03 -3145.82 -1303.89
-1043.05 -3144.82 -1303.88
-1043.06 -3143.82 -1303.87
-1043.07 -3142.82 -1303.87
-1043.09 -3141.82 -1303.86
-1043.1 -3140.82 -1303.86
-1043.1 -3139.82 -1303.85
-1043.11 -3138.82 -1303.84
-1043.12 -3137.82 -1303.84
-1043.12 -3136.82 -1303.83
-1043.13 -3135.82 -1303.83
-1043.13 -3134.82 -1303.82
-1043.13 -3133.82 -1303.81
-1043.13 -3132.82 -1303.81
-1043.13 -3131.82 -1303.8
-1043.12 -3130.82 -1303.8
-1043.12 -3129.82 -1303.79
-1043.11 -3128.82 -1303.78
-1043.1 -3127.82 -1303.78
-1043.1 -3126.82 -1303.77
-1043.09 -3125.82 -1303.77
-1043.07 -3124.82 -1303.76
-1043.06 -3123.82 -1303.75
-1043.05 -3122.82 -1303.75
-1043.03 -3121.82 -1303.74
-1043.01 -3120.82 -1303.74
-1043 -3119.82 -1303.73
-1042.98 -3118.82 -1303.72
-1042.96 -3117.82 -1303.72
-1042.93 -3116.82 -1303.71
-1042.91 -3115.82 -1303.71
-1042.88 -3114.82 -1303.7
-1042.86 -3113.82 -1303.69
-1042.83 -3112.82 -1303.69
-1042.8 -3111.82 -1303.68
-1042.77 -3110.83 -1303.68
-1042.74 -3109.83 -1303.67
-1042.71 -3108.83 -1303.66
-1042.67 -3107.83 -1303.66
-1042.64 -3106.83 -1303.65
-1042.6 -3105.83 -1303.64
-1042.56 -3104.83 -1303.64
-1042.52 -3103.83 -1303.63
-1042.48 -3102.83 -1303.63
-1042.44 -3101.83 -1303.62
-1042.39 -3100.83 -1303.61
-1042.35 -3099.83 -1303.61
-1042.3 -3098.84 -1303.6
-1042.25 -3097.84 -1303.6
-1042.2 -3096.84 -1303.59
-1042.15 -3095.84 -1303.58
-1042.12 -3095.26 -1303.58
-1043.04 -3095.84 -1149.93
-1043.03 -3095.83 -1150.93
-1043.03 -3095.83 -1151.93
-1043.02 -3095.82 -1152.93
-1043.01 -3095.82 -1153.93
-1043.01 -3095.82 -1154.93
-1043 -3095.81 -1155.93
-1043 -3095.81 -1156.93
-1042.99 -3095.81 -1157.93
-1042.98 -3095.8 -1158.93
-1042.98 -3095.8 -1159.93
-1042.97 -3095.79 -1160.93
-1042.97 -3095.79 -1161.93
-1042.96 -3095.79 -1162.93
-1042.95 -3095.78 -1163.93
-1042.95 -3095.78 -1164.93
-1042.94 -3095.78 -1165.93
-1042.94 -3095.77 -1166.93
-1042.93 -3095.77 -1167.93
-1042.93 -3095.76 -1168.93
-1042.92 -3095.76 -1169.93
-1042.91 -3095.76 -1170.93
-1042.91 -3095.75 -1171.93
-1042.9 -3095.75 -1172.93
-1042.9 -3095.75 -1173.93
-1042.89 -3095.74 -1174.93
-1042.88 -3095.74 -1175.93
-1042.88 -3095.73 -1176.93
-1042.87 -3095.73 -1177.93
-1042.87 -3095.73 -1178.93
-1042.86 -3095.72 -1179.93
-1042.85 -3095.72 -1180.93
-1042.85 -3095.72 -1181.93
-1042.84 -3095.71 -1182.93
-1042.84 -3095.71 -1183.93
-1042.83 -3095.7 -1184.93
-1042.82 -3095.7 -1185.93
-1042.82 -3095.7 -1186.93
-1042.81 -3095.69 -1187.93
-1042.81 -3095.69 -1188.93
-1042.8 -3095.69 -1189.93
-1042.79 -3095.68 -1190.93
-1042.79 -3095.68 -1191.93
-1042.78 -3095.67 -1192.93
-1042.78 -3095.67 -1193.93
-1042.77 -3095.67 -1194.93
-1042.76 -3095.66 -1195.93
-1042.76 -3095.66 -1196.93
-1042.75 -3095.66 -1197.93
-1042.75 -3095.65 -1198.93
-1042.74 -3095.65 -1199.93
-1042.73 -3095.64 -1200.93
-1042.73 -3095.64 -1201.93
-1042.72 -3095.64 -1202.93
-1042.72 -3095.63 -1203.93
-1042.71 -3095.63 -1204.93
-1042.7 -3095.63 -1205.93
-1042.7 -3095.62 -1206.93
-1042.69 -3095.62 -1207.93
-1042.69 -3095.61 -1208.93
-1042.68 -3095.61 -1209.93
-1042.67 -3095.61 -1210.93
-1042.67 -3095.6 -1211.93
-1042.66 -3095.6 -1212.93
-1042.66 -3095.6 -1213.93
-1042.65 -3095.59 -1214.93
-1042.64 -3095.59 -1215.93
-1042.64 -3095.58 -1216.93
-1042.63 -3095.58 -1217.93
-1042.63 -3095.58 -1218.93
-1042.62 -3095.57 -1219.93
-1042.61 -3095.57 -1220.93
-1042.61 -3095.57 -1221.93
-1042.6 -3095.56 -1222.93
-1042.6 -3095.56 -1223.93
-1042.59 -3095.55 -1224.93
-1042.58 -3095.55 -1225.93
-1042.58 -3095.55 -1226.93
-1042.57 -3095.54 -1227.93
-1042.57 -3095.54 -1228.93
-1042.56 -3095.54 -1229.93
-1042.55 -3095.53 -1230.93
-1042.55 -3095.53 -1231.93
-1042.54 -3095.52 -1232.93
-1042.54 -3095.52 -1233.93
-1042.53 -3095.52 -1234.93
-1042.53 -3095.51 -1235.93
-1042.52 -3095.51 -1236.93
-1042.51 -3095.51 -1237.93
-1042.51 -3095.5 -1238.93
-1042.5 -3095.5 -1239.93
-1042.5 -3095.49 -1240.93
-1042.49 -3095.49 -1241.93
-1042.48 -3095.49 -1242.93
-1042.48 -3095.48 -1243.93
-1042.47 -3095.48 -1244.93
-1042.47 -3095.48 -1245.93
-1042.46 -3095.47 -1246.93
-1042.45 -3095.47 -1247.93
-1042.45 -3095.46 -1248.93
-1042.44 -3095.46 -1249.93
-1042.44 -3095.46 -1250.93
-1042.43 -3095.45 -1251.93
-1042.42 -3095.45 -1252.93
-1042.42 -3095.45 -1253.93
-1042.41 -3095.44 -1254.93
-1042.41 -3095.44 -1255.93
-1042.4 -3095.43 -1256.93
-1042.39 -3095.43 -1257.93
-1042.39 -3095.43 -1258.93
-1042.38 -3095.42 -1259.93
-1042.38 -3095.42 -1260.93
-1042.37 -3095.42 -1261.93
-1042.36 -3095.41 -1262.93
-1042.36 -3095.41 -1263.93
-1042.35 -3095.4 -1264.93
-1042.35 -3095.4 -1265.93
-1042.34 -3095.4 -1266.93
-1042.33 -3095.39 -1267.93
-1042.33 -3095.39 -1268.93
-1042.32 -3095.39 -1269.93
-1042.32 -3095.38 -1270.93
-1042.31 -3095.38 -1271.93
-1042.3 -3095.38 -1272.93
-1042.3 -3095.37 -1273.93
-1042.29 -3095.37 -1274.93
-1042.29 -3095.36 -1275.93
-1042.28 -3095.36 -1276.93
-1042.27 -3095.36 -1277.93
-1042.27 -3095.35 -1278.93
-1042.26 -3095.35 -1279.93
-1042.26 -3095.34 -1280.93
-1042.25 -3095.34 -1281.93
-1042.24 -3095.34 -1282.93
-1042.24 -3095.33 -1283.93
-1042.23 -3095.33 -1284.93
-1042.23 -3095.33 -1285.93
-1042.22 -3095.32 -1286.93
-1042.21 -3095.32 -1287.93
-1042.21 -3095.31 -1288.93
-1042.2 -3095.31 -1289.93
-1042.2 -3095.31 -1290.93
-1042.19 -3095.3 -1291.93
-1042.18 -3095.3 -1292.92
-1042.18 -3095.3 -1293.92
-1042.17 -3095.29 -1294.92
-1042.17 -3095.29 -1295.92
-1042.16 -3095.28 -1296.92
-1042.16 -3095.28 -1297.92
-1042.15 -3095.28 -1298.92
-1042.14 -3095.27 -1299.92
-1042.14 -3095.27 -1300.92
-1042.13 -3095.27 -1301.92
-1042.13 -3095.26 -1302.92
-1042.12 -3095.26 -1303.58
-992.394 -3406.24 -1151.71
-992.761 -3405.31 -1151.71
-993.126 -3404.38 -1151.7
-993.49 -3403.45 -1151.7
-993.853 -3402.52 -1151.69
-994.215 -3401.58 -1151.69
-994.575 -3400.65 -1151.68
-994.934 -3399.72 -1151.68
-995.292 -3398.78 -1151.67
-995.649 -3397.85 -1151.67
-996.004 -3396.92 -1151.66
-996.358 -3395.98 -1151.66
-996.711 -3395.04 -1151.65
-997.062 -3394.11 -1151.65
-997.413 -3393.17 -1151.64
-997.762 -3392.23 -1151.64
-998.109 -3391.3 -1151.63
-998.456 -3390.36 -1151.63
-998.801 -3389.42 -1151.62
-999.145 -3388.48 -1151.62
-999.488 -3387.54 -1151.61
-999.829 -3386.6 -1151.61
-1000.17 -3385.66 -1151.6
-1000.51 -3384.72 -1151.6
-1000.85 -3383.78 -1151.59
-1001.18 -3382.84 -1151.59
-1001.52 -3381.9 -1151.58
-1001.85 -3380.95 -1151.58
-1002.18 -3380.01 -1151.57
-1002.51 -3379.07 -1151.57
-1002.84 -3378.12 -1151.56
-1003.17 -3377.18 -1151.56
-1003.5 -3376.23 -1151.55
-1003.83 -3375.29 -1151.55
-1004.15 -3374.34 -1151.54
-1004.47 -3373.4 -1151.54
-1004.8 -3372.45 -1151.53
-1005.12 -3371.5 -1151.53
-1005.44 -3370.55 -1151.52
-1005.76 -3369.61 -1151.52
-1006.07 -3368.66 -1151.51
-1006.39 -3367.71 -1151.51
-1006.7 -3366.76 -1151.5
-1007.02 -3365.81 -1151.49
-1007.33 -3364.86 -1151.49
-1007.64 -3363.91 -1151.48
-1007.95 -3362.96 -1151.48
-1008.26 -3362.01 -1151.47
-1008.56 -3361.06 -1151.47
-1008.87 -3360.1 -1151.46
-1009.17 -3359.15 -1151.46
-1009.48 -3358.2 -1151.45
-1009.78 -3357.24 -1151.45
-1010.08 -3356.29 -1151.44
-1010.38 -3355.34 -1151.44
-1010.68 -3354.38 -1151.43
-1010.97 -3353.43 -1151.43
-1011.27 -3352.47 -1151.42
-1011.56 -3351.52 -1151.42
-1011.85 -3350.56 -1151.41
-1012.14 -3349.6 -1151.41
-1012.43 -3348.65 -1151.4
-1012.72 -3347.69 -1151.4
-1013.01 -3346.73 -1151.39
-1013.3 -3345.77 -1151.38
-1013.58 -3344.81 -1151.38
-1013.87 -3343.85 -1151.37
-1014.15 -3342.9 -1151.37
-1014.43 -3341.94 -1151.36
-1014.71 -3340.98 -1151.36
-1014.99 -3340.02 -1151.35
-1015.26 -3339.05 -1151.35
-1015.54 -3338.09 -1151.34
-1015.81 -3337.13 -1151.34
-1016.09 -3336.17 -1151.33
-1016.36 -3335.21 -1151.33
-1016.63 -3334.24 -1151.32
-1016.9 -3333.28 -1151.32
-1017.17 -3332.32 -1151.31
-1017.43 -3331.35 -1151.3
-1017.7 -3330.39 -1151.3
-1017.96 -3329.43 -1151.29
-1018.23 -3328.46 -1151.29
-1018.49 -3327.5 -1151.28
-1018.75 -3326.53 -1151.28
-1019.01 -3325.56 -1151.27
-1019.26 -3324.6 -1151.27
-1019.52 -3323.63 -1151.26
-1019.77 -3322.66 -1151.26
-1020.03 -3321.7 -1151.25
-1020.28 -3320.73 -1151.25
-1020.53 -3319.76 -1151.24
-1020.78 -3318.79 -1151.23
-1021.03 -3317.82 -1151.23
-1021.28 -3316.86 -1151.22
-1021.52 -3315.89 -1151.22
-1021.77 -3314.92 -1151.21
-1022.01 -3313.95 -1151.21
-1022.25 -3312.98 -1151.2
-1022.49 -3312.01 -1151.2
-1022.73 -3311.03 -1151.19
-1022.97 -3310.06 -1151.19
-1023.21 -3309.09 -1151.18
-1023.44 -3308.12 -1151.17
-1023.67 -3307.15 -1151.17
-1023.91 -3306.18 -1151.16
-1024.14 -3305.2 -1151.16
-1024.37 -3304.23 -1151.15
-1024.6 -3303.26 -1151.15
-1024.82 -3302.28 -1151.14
-1025.05 -3301.31 -1151.14
-1025.28 -3300.33 -1151.13
-1025.5 -3299.36 -1151.12
-1025.72 -3298.38 -1151.12
-1025.94 -3297.41 -1151.11
-1026.16 -3296.43 -1151.11
-1026.38 -3295.46 -1151.1
-1026.6 -3294.48 -1151.1
-1026.81 -3293.5 -1151.09
-1027.03 -3292.53 -1151.09
-1027.24 -3291.55 -1151.08
-1027.45 -3290.57 -1151.08
-1027.66 -3289.59 -1151.07
-1027.87 -3288.62 -1151.06
-1028.08 -3287.64 -1151.06
-1028.28 -3286.66 -1151.05
-1028.49 -3285.68 -1151.05
-1028.69 -3284.7 -1151.04
-1028.89 -3283.72 -1151.04
-1029.09 -3282.74 -1151.03
-1029.29 -3281.76 -1151.03
-1029.49 -3280.78 -1151.02
-1029.69 -3279.8 -1151.01
-1029.88 -3278.82 -1151.01
-1030.08 -3277.84 -1151
-1030.27 -3276.86 -1151
-1030.46 -3275.88 -1150.99
-1030.65 -3274.9 -1150.99
-1030.84 -3273.92 -1150.98
-1031.03 -3272.93 -1150.97
-1031.22 -3271.95 -1150.97
-1031.4 -3270.97 -1150.96
-1031.58 -3269.98 -1150.96
-1031.77 -3269 -1150.95
-1031.95 -3268.02 -1150.95
-1032.13 -3267.03 -1150.94
-1032.31 -3266.05 -1150.94
-1032.48 -3265.07 -1150.93
-1032.66 -3264.08 -1150.92
-1032.83 -3263.1 -1150.92
-1033.01 -3262.11 -1150.91
-1033.18 -3261.13 -1150.91
-1033.35 -3260.14 -1150.9
-1033.52 -3259.16 -1150.9
-1033.68 -3258.17 -1150.89
-1033.85 -3257.18 -1150.88
-1034.02 -3256.2 -1150.88
-1034.18 -3255.21 -1150.87
-1034.34 -3254.22 -1150.87
-1034.5 -3253.24 -1150.86
-1034.66 -3252.25 -1150.86
-1034.82 -3251.26 -1150.85
-1034.98 -3250.28 -1150.85
-1035.13 -3249.29 -1150.84
-1035.29 -3248.3 -1150.83
-1035.44 -3247.31 -1150.83
-1035.59 -3246.32 -1150.82
-1035.74 -3245.33 -1150.82
-1035.89 -3244.35 -1150.81
-1036.04 -3243.36 -1150.81
-1036.19 -3242.37 -1150.8
-1036.33 -3241.38 -1150.79
-1036.47 -3240.39 -1150.79
-1036.62 -3239.4 -1150.78
-1036.76 -3238.41 -1150.78
-1036.9 -3237.42 -1150.77
-1037.03 -3236.43 -1150.77
-1037.17 -3235.44 -1150.76
-1037.31 -3234.45 -1150.75
-1037.44 -3233.46 -1150.75
-1037.57 -3232.46 -1150.74
-1037.71 -3231.47 -1150.74
-1037.84 -3230.48 -1150.73
-1037.96 -3229.49 -1150.72
-1038.09 -3228.5 -1150.72
-1038.22 -3227.51 -1150.71
-1038.34 -3226.51 -1150.71
-1038.47 -3225.52 -1150.7
-1038.59 -3224.53 -1150.7
-1038.71 -3223.54 -1150.69
-1038.83 -3222.54 -1150.68
-1038.95 -3221.55 -1150.68
-1039.06 -3220.56 -1150.67
-1039.18 -3219.56 -1150.67
-1039.29 -3218.57 -1150.66
-1039.41 -3217.58 -1150.66
-1039.52 -3216.58 -1150.65
-1039.63 -3215.59 -1150.64
-1039.74 -3214.6 -1150.64
-1039.84 -3213.6 -1150.63
-1039.95 -3212.61 -1150.63
-1040.05 -3211.61 -1150.62
-1040.16 -3210.62 -1150.61
-1040.26 -3209.62 -1150.61
-1040.36 -3208.63 -1150.6
-1040.46 -3207.63 -1150.6
-1040.56 -3206.64 -1150.59
-1040.65 -3205.64 -1150.59
-1040.75 -3204.65 -1150.58
-1040.84 -3203.65 -1150.57
-1040.94 -3202.66 -1150.57
-1041.03 -3201.66 -1150.56
-1041.12 -3200.66 -1150.56
-1041.21 -3199.67 -1150.55
-1041.29 -3198.67 -1150.54
-1041.38 -3197.68 -1150.54
-1041.46 -3196.68 -1150.53
-1041.55 -3195.68 -1150.53
-1041.63 -3194.69 -1150.52
-1041.71 -3193.69 -1150.52
-1041.79 -3192.69 -1150.51
-1041.87 -3191.7 -1150.5
-1041.94 -3190.7 -1150.5
-1042.02 -3189.7 -1150.49
-1042.09 -3188.7 -1150.49
-1042.16 -3187.71 -1150.48
-1042.23 -3186.71 -1150.47
-1042.3 -3185.71 -1150.47
-1042.37 -3184.71 -1150.46
-1042.44 -3183.72 -1150.46
-1042.5 -3182.72 -1150.45
-1042.57 -3181.72 -1150.44
-1042.63 -3180.72 -1150.44
-1042.69 -3179.72 -1150.43
-1042.75 -3178.73 -1150.43
-1042.81 -3177.73 -1150.42
-1042.87 -3176.73 -1150.42
-1042.93 -3175.73 -1150.41
-1042.98 -3174.73 -1150.4
-1043.03 -3173.73 -1150.4
-1043.09 -3172.74 -1150.39
-1043.14 -3171.74 -1150.39
-1043.19 -3170.74 -1150.38
-1043.23 -3169.74 -1150.37
-1043.28 -3168.74 -1150.37
-1043.33 -3167.74 -1150.36
-1043.37 -3166.74 -1150.36
-1043.41 -3165.74 -1150.35
-1043.45 -3164.74 -1150.34
-1043.49 -3163.75 -1150.34
-1043.53 -3162.75 -1150.33
-1043.57 -3161.75 -1150.33
-1043.61 -3160.75 -1150.32
-1043.64 -3159.75 -1150.31
-1043.67 -3158.75 -1150.31
-1043.7 -3157.75 -1150.3
-1043.74 -3156.75 -1150.3
-1043.76 -3155.75 -1150.29
-1043.79 -3154.75 -1150.28
-1043.82 -3153.75 -1150.28
-1043.84 -3152.75 -1150.27
-1043.87 -3151.75 -1150.27
-1043.89 -3150.75 -1150.26
-1043.91 -3149.75 -1150.25
-1043.93 -3148.75 -1150.25
-1043.95 -3147.75 -1150.24
-1043.97 -3146.75 -1150.24
-1043.98 -3145.75 -1150.23
-1044 -3144.75 -1150.22
-1044.01 -3143.75 -1150.22
-1044.02 -3142.75 -1150.21
-1044.03 -3141.75 -1150.21
-1044.04 -3140.75 -1150.2
-1044.05 -3139.75 -1150.19
-1044.05 -3138.75 -1150.19
-1044.06 -3137.75 -1150.18
-1044.06 -3136.75 -1150.18
-1044.06 -3135.75 -1150.17
-1044.06 -3134.75 -1150.16
-1044.06 -3133.75 -1150.16
-1044.06 -3132.75 -1150.15
-1044.06 -3131.75 -1150.15
-1044.05 -3130.75 -1150.14
-1044.05 -3129.75 -1150.13
-1044.04 -3128.75 -1150.13
-1044.03 -3127.75 -1150.12
-1044.02 -3126.75 -1150.12
-1044.01 -3125.75 -1150.11
-1044 -3124.75 -1150.1
-1043.98 -3123.75 -1150.1
-1043.97 -3122.75 -1150.09
-1043.95 -3121.75 -1150.09
-1043.93 -3120.75 -1150.08
-1043.91 -3119.75 -1150.07
-1043.89 -3118.75 -1150.07
-1043.87 -3117.76 -1150.06
-1043.84 -3116.76 -1150.06
-1043.82 -3115.76 -1150.05
-1043.79 -3114.76 -1150.04
-1043.77 -3113.76 -1150.04
-1043.74 -3112.76 -1150.03
-1043.71 -3111.76 -1150.03
-1043.67 -3110.76 -1150.02
-1043.64 -3109.76 -1150.01
-1043.61 -3108.76 -1150.01
-1043.57 -3107.76 -1150
-1043.53 -3106.76 -1150
-1043.49 -3105.76 -1149.99
-1043.45 -3104.76 -1149.98
-1043.41 -3103.76 -1149.98
-1043.37 -3102.76 -1149.97
-1043.33 -3101.76 -1149.96
-1043.28 -3100.77 -1149.96
-1043.24 -3099.77 -1149.95
-1043.19 -3098.77 -1149.95
-1043.14 -3097.77 -1149.94
-1043.09 -3096.77 -1149.93
-1043.04 -3095.84 -1149.93
-999.127 -3409.54 -1064.99
-999.494 -3408.61 -1064.99
-999.859 -3407.68 -1064.98
-1000.22 -3406.75 -1064.98
-1000.59 -3405.82 -1064.97
-1000.95 -3404.88 -1064.97
-1001.31 -3403.95 -1064.96
-1001.67 -3403.02 -1064.95
-1002.03 -3402.08 -1064.95
-1002.38 -3401.15 -1064.94
-1002.74 -3400.22 -1064.94
-1003.09 -3399.28 -1064.93
-1003.45 -3398.35 -1064.93
-1003.8 -3397.41 -1064.92
-1004.15 -3396.47 -1064.92
-1004.5 -3395.54 -1064.91
-1004.85 -3394.6 -1064.91
-1005.19 -3393.66 -1064.9
-1005.54 -3392.72 -1064.9
-1005.88 -3391.78 -1064.89
-1006.23 -3390.84 -1064.89
-1006.57 -3389.9 -1064.88
-1006.91 -3388.96 -1064.88
-1007.25 -3388.02 -1064.87
-1007.59 -3387.08 -1064.87
-1007.92 -3386.14 -1064.86
-1008.26 -3385.2 -1064.86
-1008.59 -3384.26 -1064.85
-1008.93 -3383.31 -1064.85
-1009.26 -3382.37 -1064.84
-1009.59 -3381.43 -1064.84
-1009.92 -3380.48 -1064.83
-1010.25 -3379.54 -1064.83
-1010.57 -3378.59 -1064.82
-1010.9 -3377.65 -1064.82
-1011.22 -3376.7 -1064.81
-1011.54 -3375.75 -1064.81
-1011.87 -3374.81 -1064.8
-1012.19 -3373.86 -1064.8
-1012.51 -3372.91 -1064.79
-1012.82 -3371.96 -1064.79
-1013.14 -3371.02 -1064.78
-1013.46 -3370.07 -1064.78
-1013.77 -3369.12 -1064.77
